927.5999800000001;-222.55;253.03000000000003
927.0800200000001;-217.46001;253.83099
928.8300200000001;-215.82001000000002;256.41101000000003
925.4799800000001;-211.10001000000003;254.81799
927.5999800000001;-210.50999000000002;257.13501
927.5499900000001;-204.07001000000002;258.98499000000004
929.0300300000001;-201.92999;261.88501
925.8400300000001;-199.75000000000003;260.944
928.8400300000001;-198.17000000000002;262.60101000000003
927.73999;-192.56;263.16
927.65997;-186.36;264.73499000000004
927.5100100000001;-180.58;265.57999
927.5300300000001;-174.56;266.01801
927.5800200000001;-168.45000000000002;265.98401
927.8900100000001;-163.50999000000002;266.918
927.19;-162.05;267.42401
928.60999;-159.14000000000001;266.63
927.3700000000001;-156.61;268.151
927.73999;-150.39999;268.492
927.5999800000001;-144.84;268.035
925.45001;-135.83;266.84000000000003
927.5000000000001;-138.64999;268.34900000000005
927.0300300000001;-131.82001000000002;266.353
928.8499800000001;-133.27;268.17001000000005
925.94;-124.63000000000001;260.46301
927.5999800000001;-126.83000000000001;265.14099000000004
929.0800200000001;-119.54;259.06601
927.6400100000001;-120.28000000000002;263.55499000000003
927.2500000000001;-114.2;256.96399
927.60999;-114.80000000000001;263.776
927.6400100000001;-108.60000000000001;257.12701000000004
927.5300300000001;-108.17000000000002;262.896
927.1400100000001;-102.97000000000001;259.04599
927.7299800000001;-102.56;263.63599000000005
927.8300200000001;-96.66000000000001;259.61899
927.3499800000001;-96.49000000000001;263.52200000000005
927.85999;-90.51;260.629
927.9799800000001;-91.4;266.97900000000004
928.45001;-89.64;267.32999
926.6300000000001;-87.32000000000001;261.08099000000004
926.69;-84.58000000000001;264.55301000000003
927.9199800000001;-84.38000000000001;268.16299000000004
927.3100000000001;-79.58000000000001;265.71500000000003
927.60999;-78.42;269.84000000000003
925.10999;-75.25;266.858
927.82001;-72.86;270.91901
929.3400300000001;-69.73;273.28201
927.8900100000001;-67.57000000000001;271.01300000000003
927.6200000000001;-66.45;274.62799
927.0800200000001;-61.690000000000005;272.38
927.65997;-60.540000000000006;275.69
925.3900100000001;-55.43000000000001;273.25299
927.19;-54.650000000000006;277.45099000000005
930.3800000000001;-52.040000000000006;279.33801
924.9299900000001;-48.38;273.07001
927.2899800000001;-48.620000000000005;278.21500000000003
929.5999800000001;-47.14;279.439
926.77002;-43.690000000000005;278.466
928.7500000000001;-42.1;279.86600000000004
926.4299900000001;-36.56;279.22699
927.4699700000001;-36.470000000000006;280.94699
927.82001;-30.540000000000003;282.13300000000004
930.2100200000001;-28.42;285.36600000000004
924.9699700000001;-27.020000000000003;278.34399
927.2899800000001;-24.6;284.017
929.5000000000001;-22.01;285.38101
926.5900300000001;-18.85;284.797
929.3300200000001;-18.39;285.798
926.5000000000001;-12.190000000000001;283.93201000000005
929.4699700000001;-12.48;286.13800000000003
925.4199800000001;-4.37;279.005
927.5000000000001;-6.510000000000001;284.33301
929.2500000000001;-5.840000000000001;286.793
926.5999800000001;-0.48000000000000004;278.26199
927.40002;-0.4;283.466
929.6799900000001;-1.2200000000000002;286.29599
926.0600000000001;3.72;278.03000000000003
927.5900300000001;5.7;283.608
929.9600200000001;6.140000000000001;285.86899
926.48999;11.06;284.53900000000004
929.3800000000001;12.010000000000002;286.07300000000004
926.57001;17.520000000000003;284.952
928.5000000000001;17.270000000000003;286.435
924.8300200000001;24.150000000000002;284.362
928.0999800000001;23.19;286.51999
925.2800300000001;29.01;284.27899
927.90997;29.330000000000002;287.05099
925.6799900000001;36.75;285.08200000000005
927.65002;35.290000000000006;286.26501
925.69;40.24;284.82001
927.6699800000001;41.690000000000005;286.76401000000004
925.40002;47.56;284.97501
927.7999900000001;47.650000000000006;288.12
925.60999;50.7;285.25699000000003
927.5499900000001;52.95;287.74600000000004
927.07001;59.470000000000006;289.28900000000004
929.73999;62.040000000000006;291.569
926.5800200000001;65.29;290.52200000000005
929.1300000000001;65.36;291.673
926.4600200000001;71.54;290.53900000000004
929.3300200000001;72.02000000000001;292.45001
925.6799900000001;77.24000000000001;290.841
928.3499800000001;77.36;292.67599
925.5800200000001;83.05000000000001;289.81601
927.5800200000001;83.58000000000001;292.69601
926.2800300000001;88.31;290.73801000000003
927.5999800000001;89.34;294.41599
927.0600000000001;95.63000000000001;295.99701000000005
930.2800300000001;97.9;297.49301
926.8700000000001;100.94000000000001;295.815
929.69;101.57000000000001;297.64499
926.2999900000001;105.42;296.81
927.8499800000001;107.71000000000001;298.939
925.5399800000001;112.52000000000001;295.72101000000004
927.60999;113.28000000000002;301.03400000000005
927.5999800000001;120.86000000000001;301.41599
927.2600100000001;125.19000000000001;301.58701
928.40002;134.12;296.88901000000004
927.90997;131.56;300.74399
927.45001;138.78;296.87201000000005
927.70001;136.41000000000003;298.16299000000004
927.2500000000001;144.32001000000002;290.16199
927.5100100000001;143.55;294.92999000000003
927.0499900000001;149.61;289.18600000000004
928.0499900000001;147.86;292.56601
933.77002;-768.6799900000001;186.3
933.5000000000001;-762.53003;186.037
933.5300300000001;-756.5999800000001;186.03300000000002
933.4199800000001;-750.73999;184.94099000000003
933.5100100000001;-744.3800000000001;182.155
934.0300300000001;-747.2100200000001;183.46300000000002
933.7800300000001;-738.6300000000001;179.437
933.5399800000001;-732.0100100000001;175.95599
934.3100000000001;-735.0000000000001;177.59599
933.6699800000001;-726.4699700000001;173.241
933.69;-719.90002;170.08501
933.7800300000001;-723.0800200000001;171.604
933.7600100000001;-714.53003;167.70200000000003
933.6300000000001;-708.5600000000001;167.99899000000002
933.2999900000001;-703.85999;169.37199
934.1699800000001;-701.3900100000001;172.895
933.3900100000001;-696.3800000000001;175.76100000000002
933.7899800000001;-690.66998;175.39200000000002
936.1400100000001;-688.28003;177.37199
932.8900100000001;-686.5100100000001;176.405
934.0399800000001;-683.82001;179.99899000000002
936.5999800000001;-681.73999;183.299
932.69;-680.65002;182.67799000000002
933.77002;-677.9299900000001;185.453
932.82001;-674.45001;188.30299000000002
933.7199700000001;-672.0499900000001;191.526
932.6799900000001;-668.0800200000001;194.31500000000003
933.9199800000001;-666.23999;197.04100000000003
933.3700000000001;-660.4699700000001;196.28999000000002
933.32001;-654.4299900000001;196.17101000000002
933.57001;-648.65997;196.13000000000002
933.5300300000001;-642.4799800000001;196.10699000000002
933.6799900000001;-636.5499900000001;196.20100000000002
933.65997;-630.65997;196.18900000000002
933.0100100000001;-625.7199700000001;199.06799
934.2899800000001;-623.20001;202.604
933.60999;-618.8499800000001;202.48100000000002
933.15997;-613.03003;205.05200000000002
934.69;-610.75;208.78300000000002
930.9699700000001;-609.28003;207.05800000000002
932.8499800000001;-607.6400100000001;210.66600000000003
934.3900100000001;-605.5100100000001;214.59900000000002
933.94;-600.38;215.11099000000002
932.52002;-595.2100200000001;217.364
934.7199700000001;-593.78998;221.90300000000002
935.2199700000001;-593.2299800000001;226.263
931.1200000000001;-590.8499800000001;219.03600000000003
932.4699700000001;-589.0100100000001;223.08200000000002
934.35999;-588.15997;228.29401000000001
935.8100000000001;-585.63;231.58400000000003
930.8400300000001;-584.7999900000001;224.645
932.5000000000001;-583.62;229.62900000000002
934.40002;-581.5999800000001;232.54201000000003
930.7199700000001;-579.48999;230.45799000000002
933.3700000000001;-576.5600000000001;234.186
932.9600200000001;-571.0900300000001;236.55901000000003
934.9600200000001;-568.4699700000001;238.20000000000002
932.40997;-565.16998;236.81300000000002
933.3800000000001;-564.3499800000001;238.63800000000003
933.73999;-558.3100000000001;239.85899
931.4699700000001;-550.52002;237.05800000000002
934.1300000000001;-552.28998;239.03000000000003
933.20001;-545.62;236.76500000000001
934.65002;-548.13;237.93300000000002
933.5399800000001;-540.38;234.33900000000003
933.7199700000001;-533.5499900000001;230.62199
933.73999;-535.02002;232.787
930.7500000000001;-525.7100200000001;225.097
933.7299800000001;-528.03998;228.84500000000003
932.7500000000001;-521.03003;224.73801000000003
933.5300300000001;-522.7600100000001;227.687
931.82001;-517.21997;224.519
934.7999900000001;-516.44;226.52
933.9600200000001;-509.57001;218.52
932.6699800000001;-510.07999000000007;224.22301000000002
935.2999900000001;-510.95999000000006;225.63499000000002
933.15997;-503.60001000000005;216.79601000000002
933.2500000000001;-504.51001;224.55200000000002
935.9600200000001;-504.75000000000006;225.42101000000002
933.5800200000001;-498.04001000000005;216.94400000000002
933.0300300000001;-498.81000000000006;224.41701
935.6200000000001;-498.29001000000005;225.53900000000002
933.3499800000001;-493.32001;217.241
932.8300200000001;-492.39001;224.56000000000003
935.7899800000001;-492.35999000000004;225.52100000000002
932.9199800000001;-487.85999000000004;217.88699000000003
932.4600200000001;-486.85999000000004;224.60600000000002
935.48999;-486.45999000000006;225.90300000000002
933.0600000000001;-482.95999000000006;219.02800000000002
932.3499800000001;-481.17001000000005;224.50400000000002
934.69;-479.98001000000005;226.13499000000002
932.0300300000001;-473.70001;223.65199
934.2199700000001;-474.70999000000006;226.18201000000002
931.77002;-470.95999000000006;223.75600000000003
933.7100200000001;-468.23999000000003;226.472
931.3499800000001;-464.03000000000003;224.75999000000002
933.5100100000001;-462.60001000000005;228.56799
933.19;-456.78000000000003;228.80800000000002
930.6200000000001;-451.47;224.81900000000002
933.7299800000001;-450.32999;228.61800000000002
931.8900100000001;-442.48999000000003;225.15401000000003
933.8400300000001;-444.66;229.55800000000002
931.1799900000001;-437.14001;225.116
933.4600200000001;-438.57001;228.37399000000002
933.69;-432.84000000000003;224.394
933.8100000000001;-432.85001000000005;226.698
933.70001;-425.54001000000005;224.32899
933.8499800000001;-426.70001;226.00999000000002
930.7999900000001;-421.14001;219.04201
932.2800300000001;-420.48999000000003;223.95900000000003
935.0800200000001;-420.87000000000006;225.806
931.9699700000001;-414.35001000000005;224.32100000000003
934.5999800000001;-414.04999000000004;226.08800000000002
931.4299900000001;-408.85999000000004;224.69701
934.5000000000001;-408.35001000000005;226.45700000000002
932.3800000000001;-401.54999000000004;223.83200000000002
934.60999;-403.07001;226.48599000000002
931.19;-395.92999000000003;218.89999000000003
932.9299900000001;-396.72;223.32100000000003
936.1200000000001;-396.28000000000003;226.12601
931.8499800000001;-390.60999000000004;224.17599
934.82001;-390.63000000000005;226.48700000000002
930.7600100000001;-385.67001000000005;215.8
931.5399800000001;-384.42001000000005;224.39600000000002
934.8499800000001;-384.62;226.66701
931.6799900000001;-378.57999;224.793
934.85999;-378.38000000000005;226.78300000000002
931.7999900000001;-374.56;224.68401000000003
933.8700000000001;-371.95001;227.395
932.9600200000001;-366.12;223.799
933.5600000000001;-366.62;226.77299000000002
932.2199700000001;-358.10001000000005;224.537
933.6400100000001;-361.06;227.93900000000002
932.0000000000001;-354.26001;224.23801000000003
934.32001;-354.82001;226.966
934.0900300000001;-350.09000000000003;223.466
933.7500000000001;-348.63000000000005;227.17300000000003
932.5000000000001;-342.95999;224.58400000000003
933.85999;-342.41;226.85500000000002
932.20001;-336.04001000000005;224.20200000000003
933.8900100000001;-336.53000000000003;227.59599000000003
931.5300300000001;-330.89001;224.02499000000003
933.5399800000001;-330.54999000000004;227.01199000000003
930.82001;-321.92001000000005;224.31900000000002
934.15997;-324.35999000000004;228.15601
932.3100000000001;-319.79999000000004;224.55099
933.4799800000001;-318.53000000000003;227.77901000000003
932.8900100000001;-312.25;223.81799
933.73999;-312.34000000000003;227.87300000000002
933.4299900000001;-304.98999000000003;223.82700000000003
933.9299900000001;-306.54999000000004;227.09300000000002
931.5499900000001;-301.75;223.75000000000003
933.4799800000001;-300.56;228.675
933.3900100000001;-295.19;222.29100000000003
933.0000000000001;-294.89999;229.94400000000002
935.8800000000001;-293.13000000000005;231.56799
932.3800000000001;-288.64999;223.62601
932.35999;-289.22;229.98000000000002
934.1799900000001;-287.92001000000005;232.80200000000002
931.5800200000001;-285.20999;224.96400000000003
933.44;-282.34000000000003;227.04401000000001
933.7100200000001;-282.35999000000004;233.80901000000003
932.5999800000001;-276.26999;230.299
933.5499900000001;-276.70999;235.21800000000002
936.0000000000001;-274.35999000000004;237.50900000000001
930.6400100000001;-272.60001;230.60800000000003
932.3300200000001;-272.06;236.75900000000001
933.8900100000001;-269.76999;238.519
934.4699700000001;-263.25;235.485
933.94;-264.75;240.45799000000002
932.2199700000001;-259.28000000000003;234.78999000000002
933.5000000000001;-258.92999000000003;242.16701000000003
935.0499900000001;-256.54001;243.79500000000002
932.44;-254.74001;236.67700000000002
934.8300200000001;-251.97000000000003;238.16100000000003
933.48999;-252.45000000000002;244.54500000000002
933.5600000000001;-246.88000000000002;240.26801000000003
933.4299900000001;-246.58;246.05
931.2600100000001;-242.20000000000002;242.716
932.8400300000001;-241.05;247.91901000000001
935.20001;-238.67000000000002;249.73700000000002
931.9799800000001;-236.00000000000003;247.74400000000003
934.10999;-234.08;250.407
931.85999;-230.55;248.48900000000003
933.4600200000001;-228.28000000000003;252.75500000000002
933.8100000000001;-223.11;254.741
933.94;-220.41000000000003;256.01199
931.6200000000001;-217.75999000000002;254.79500000000002
933.7100200000001;-216.53999000000002;257.42099
933.2500000000001;-210.92000000000002;258.45001
933.6400100000001;-204.42000000000002;259.92801000000003
934.8100000000001;-202.84;261.76401000000004
932.5999800000001;-200.19000000000003;260.52701
933.98999;-198.66000000000003;263.30600000000004
933.70001;-192.32001000000002;264.43100000000004
933.4699700000001;-186.49001;265.97299000000004
933.7100200000001;-180.85001000000003;266.117
933.5600000000001;-174.48000000000002;266.76199
936.3700000000001;-173.37;267.271
933.2500000000001;-168.78999000000002;266.52399
936.23999;-169.06;267.58099000000004
933.57001;-163.20000000000002;266.853
932.8100000000001;-161.95000000000002;267.54099
933.52002;-158.37;266.71399
933.60999;-156.64000000000001;267.49701000000005
931.9199800000001;-151.88000000000002;267.12299
933.5900300000001;-150.35001000000003;268.54001
933.6200000000001;-144.57001000000002;268.71899
933.3100000000001;-138.39000000000001;269.73901
933.4299900000001;-131.50999000000002;266.19699
933.6699800000001;-132.49001;269.06
932.65997;-125.92000000000002;266.35999000000004
934.45001;-127.9;267.771
933.35999;-119.53000000000002;260.271
933.4799800000001;-120.65;265.38101
935.7199700000001;-121.56000000000002;267.26801
934.1400100000001;-114.77000000000001;259.09698000000003
933.8800000000001;-114.51;265.42999000000003
931.7999900000001;-107.43;258.89099000000004
933.6300000000001;-108.32000000000001;265.314
932.3300200000001;-103.45;260.228
933.3800000000001;-102.43;265.01099000000005
933.4600200000001;-96.74000000000001;266.24600000000004
935.82001;-94.76;267.52701
932.8700000000001;-90.68;264.82800000000003
933.7800300000001;-90.25000000000001;268.185
933.5499900000001;-84.39;263.48801000000003
933.82001;-84.88000000000001;269.68600000000004
934.02002;-78.08000000000001;265.06799
933.4600200000001;-78.44000000000001;271.245
933.1699800000001;-74.59;266.733
933.4799800000001;-72.47;271.61301000000003
933.9299900000001;-69.89;273.38800000000003
932.8400300000001;-68.69000000000001;271.71301
933.57001;-66.77000000000001;275.34601000000004
931.57001;-63.32000000000001;272.64099000000004
933.60999;-60.720000000000006;277.32101
935.57001;-57.56;279.49799
932.1200000000001;-55.27;277.375
934.1699800000001;-54.25000000000001;280.836
933.4199800000001;-51.03;278.93701000000004
933.44;-49.00000000000001;281.22601000000003
933.4600200000001;-43.540000000000006;278.63599000000005
933.73999;-42.550000000000004;282.077
933.4199800000001;-36.81;283.418
935.8100000000001;-34.81;285.646
932.2199700000001;-31.400000000000002;284.08301
934.5600000000001;-30.180000000000003;285.85101000000003
932.0999800000001;-25.610000000000003;284.38599000000005
934.02002;-24.3;286.41901
931.3400300000001;-20.69;284.03699
933.7500000000001;-18.26;287.069
931.0399800000001;-12.430000000000001;284.172
934.15997;-12.250000000000002;287.478
931.5100100000001;-5.44;284.40500000000003
933.82001;-6.290000000000001;287.94501
931.9600200000001;-0.9;284.93301
933.3800000000001;-0.5800000000000001;288.86401
931.7100200000001;3.41;285.05099
933.2199700000001;5.430000000000001;288.608
931.27002;8.540000000000001;285.112
933.6400100000001;11.24;288.54599
936.2999900000001;9.15;291.27301
933.2899800000001;17.67;289.17999000000003
936.0999800000001;17.630000000000003;291.547
933.23999;23.660000000000004;290.09000000000003
935.8100000000001;23.87;291.43701000000004
931.0399800000001;31.150000000000002;285.17499000000004
933.4699700000001;29.380000000000003;289.927
936.02002;29.46;291.28799000000004
931.2500000000001;37.040000000000006;284.90601000000004
933.5399800000001;35.25;289.74701000000005
935.77002;34.510000000000005;291.52899
933.15997;41.25;289.44800000000004
936.2600100000001;41.24;291.39801
932.3499800000001;46.86000000000001;290.319
935.0499900000001;47.42;292.11899
931.7100200000001;53.45;290.28699
934.7100200000001;53.730000000000004;292.46799000000004
932.6300000000001;58.96000000000001;289.82800000000003
934.0600000000001;59.690000000000005;293.04199
932.52002;63.290000000000006;291.05600000000004
933.4699700000001;64.91000000000001;293.83801
933.6699800000001;71.44000000000001;294.52899
931.52002;80.10000000000001;291.16299000000004
933.7600100000001;77.17;295.10599
933.3900100000001;83.45;295.32800000000003
936.5999800000001;83.66000000000001;297.44299
932.6400100000001;89.07000000000001;296.26801
935.1200000000001;90.13000000000001;297.94299
931.2199700000001;94.71000000000001;296.93301
934.15997;95.52000000000001;298.60199
934.65002;100.10000000000001;297.00101
933.5800200000001;101.35000000000001;300.28101000000004
933.5000000000001;107.43;301.62201000000005
933.5399800000001;113.55000000000001;302.58099000000004
933.6400100000001;114.67000000000002;303.26501
933.3800000000001;118.64000000000001;301.09698000000003
936.1400100000001;121.17000000000002;303.32001
933.5100100000001;125.61000000000001;301.89999
934.9600200000001;122.78000000000002;303.34799000000004
932.1699800000001;133.06;297.233
933.60999;131.59;300.27399
934.1200000000001;138.25;296.32401000000004
933.3300200000001;135.91000000000003;297.97101000000004
932.6300000000001;145.84;290.34900000000005
933.2500000000001;143.31;294.32999
934.40997;150.59;290.759
932.95001;148.22;292.34000000000003
939.5100100000001;-768.6300000000001;186.26500000000001
939.6200000000001;-762.44;186.69400000000002
939.98999;-756.5000000000001;186.38400000000001
939.6799900000001;-750.5000000000001;184.75999000000002
939.6400100000001;-744.1799900000001;182.08
939.3499800000001;-747.20001;183.39101000000002
939.45001;-738.3900100000001;179.211
939.6200000000001;-731.90002;176.05701000000002
939.7100200000001;-734.9699700000001;177.56500000000003
939.77002;-726.5000000000001;173.59300000000002
939.32001;-719.8100000000001;170.24200000000002
939.5999800000001;-722.90997;171.79401000000001
939.44;-714.37;168.66499000000002
939.90997;-708.65002;168.97000000000003
942.0300300000001;-705.73999;171.48100000000002
938.0999800000001;-704.7999900000001;170.78101
939.85999;-702.4799800000001;174.508
939.5800200000001;-696.53003;175.479
939.4600200000001;-690.85999;175.519
941.10999;-688.3499800000001;177.95599
936.7999900000001;-687.27002;177.043
939.2299800000001;-684.9799800000001;181.026
940.1799900000001;-682.52002;183.80800000000002
939.20001;-678.7999900000001;187.026
940.69;-676.37;190.21201000000002
939.15997;-673.2600100000001;192.692
940.8400300000001;-670.5900300000001;196.62900000000002
939.7800300000001;-666.78003;196.698
939.6300000000001;-660.6300000000001;196.282
939.7199700000001;-654.5800200000001;196.14999
939.3900100000001;-648.60999;196.31300000000002
939.5399800000001;-642.62;196.287
939.7100200000001;-636.4799800000001;196.276
939.5499900000001;-630.82001;197.955
941.35999;-628.5800200000001;201.823
937.2299800000001;-627.53003;200.627
939.8300200000001;-624.5499900000001;202.72099000000003
939.0600000000001;-618.5600000000001;203.97099000000003
941.6200000000001;-616.5499900000001;208.10201
937.23999;-614.9299900000001;206.58701000000002
939.3900100000001;-613.4299900000001;210.36200000000002
940.35999;-611.0;214.3
939.5399800000001;-606.40997;214.45599
939.0800200000001;-601.53998;216.75101
940.7600100000001;-598.9299900000001;221.39799000000002
940.98999;-598.41998;226.60899
936.90997;-597.38;219.20200000000003
939.48999;-595.03998;223.86700000000002
940.1799900000001;-594.7100200000001;227.40900000000002
940.2899800000001;-591.0;225.16901000000001
939.3700000000001;-589.25;230.01401
940.6400100000001;-586.65997;232.086
940.8300200000001;-584.57001;231.02299000000002
939.4799800000001;-582.65997;233.56300000000002
939.40002;-576.53998;235.99800000000002
940.27002;-573.83002;237.55499000000003
937.2899800000001;-572.48999;237.19000000000003
939.77002;-570.4699700000001;238.71001
939.40002;-564.5;241.06300000000002
939.3400300000001;-558.27002;241.13100000000003
939.5300300000001;-552.5499900000001;241.23300000000003
937.0300300000001;-544.4799800000001;236.61099000000002
939.5499900000001;-546.78998;239.53300000000002
938.5000000000001;-539.6799900000001;236.16701000000003
940.6300000000001;-541.5900300000001;237.87399000000002
936.9299900000001;-531.69;231.103
939.5800200000001;-534.25;234.70000000000002
939.0399800000001;-527.9299900000001;230.436
940.44;-529.94;232.50999000000002
937.5300300000001;-519.88;224.41499000000002
939.5000000000001;-522.3100000000001;228.717
941.48999;-525.13;231.64700000000002
941.02002;-515.78998;223.95100000000002
939.23999;-516.77002;227.377
936.65997;-507.63000000000005;218.92200000000003
939.4600200000001;-510.47;220.96800000000002
939.5499900000001;-510.51999000000006;226.92000000000002
938.6200000000001;-503.17999000000003;219.127
940.52002;-505.63000000000005;220.22400000000002
939.6400100000001;-504.78000000000003;226.68900000000002
937.35999;-498.50000000000006;218.73000000000002
940.32001;-497.92999000000003;219.847
939.3800000000001;-498.42001000000005;226.823
937.6300000000001;-493.53000000000003;218.87399000000002
940.4199800000001;-492.91;221.47099000000003
939.8400300000001;-492.70001;227.08
939.6200000000001;-486.51999000000006;221.00900000000001
939.6200000000001;-486.79001000000005;227.10100000000003
939.0900300000001;-481.45999000000006;222.23700000000002
939.8900100000001;-480.45999000000006;227.20399
940.0100100000001;-475.97;224.30299000000002
939.5300300000001;-474.53000000000003;228.75900000000001
939.5000000000001;-468.54001000000005;229.50500000000002
942.02002;-467.45999000000006;231.49200000000002
937.6400100000001;-462.94000000000005;230.30901000000003
940.5499900000001;-462.29999000000004;232.16400000000002
938.52002;-456.73001000000005;230.58200000000002
940.8900100000001;-456.34000000000003;231.948
938.5800200000001;-450.47;230.37500000000003
941.5399800000001;-450.89999000000006;231.912
938.8400300000001;-444.60999000000004;230.311
941.9699700000001;-445.23001000000005;231.882
939.0300300000001;-438.14999000000006;230.10800000000003
942.5399800000001;-440.20999000000006;231.46300000000002
937.77002;-432.79001000000005;225.144
939.5100100000001;-432.78000000000003;227.842
938.2199700000001;-427.39999000000006;224.05099
939.6300000000001;-426.47;227.74699
939.5999800000001;-422.14001;223.52400000000003
939.70001;-420.57001;227.88100000000003
938.2800300000001;-413.51001;223.58800000000002
939.90997;-414.59000000000003;228.43900000000002
937.5300300000001;-409.85001000000005;224.75999000000002
939.7500000000001;-408.50000000000006;228.71800000000002
937.2299800000001;-401.23001000000005;224.71001
939.5800200000001;-402.57001;228.45900000000003
937.3700000000001;-398.29999000000004;225.03900000000002
939.65002;-396.56000000000006;228.39000000000001
938.6400100000001;-390.35999000000004;222.56799
939.7800300000001;-390.48001000000005;228.82899
940.27002;-384.00000000000006;224.186
939.8100000000001;-384.32999;229.62300000000002
937.3900100000001;-380.70999;224.16000000000003
939.45001;-378.45999;228.627
941.7600100000001;-376.73999000000003;231.95100000000002
938.8900100000001;-372.45999;230.00101
942.1200000000001;-372.13000000000005;231.705
938.9299900000001;-366.44000000000005;229.90900000000002
941.90997;-366.64001;231.36800000000002
939.4299900000001;-360.69000000000005;229.98100000000002
941.65002;-360.48999000000003;231.48900000000003
937.0800200000001;-352.32999;225.229
939.0900300000001;-354.79999000000004;229.53400000000002
938.45001;-347.42001000000005;224.50500000000002
939.52002;-348.41;229.41400000000002
942.57001;-348.31;231.336
940.0399800000001;-344.54001000000005;225.01500000000001
938.8800000000001;-342.67001000000005;229.87000000000003
941.7199700000001;-341.75;231.66499000000002
938.8300200000001;-336.57999;229.948
941.5999800000001;-336.48999000000003;231.49300000000002
938.45001;-330.92001000000005;229.532
941.52002;-330.19000000000005;232.11700000000002
938.3499800000001;-324.89001;230.336
940.90997;-324.17999000000003;232.092
938.45001;-318.34000000000003;230.04800000000003
940.7600100000001;-319.06;232.037
938.2899800000001;-312.12;230.31400000000002
941.20001;-312.98001000000005;232.19600000000003
938.4199800000001;-306.57999;230.32700000000003
941.4699700000001;-306.51001;231.79601000000002
937.85999;-301.29999000000004;230.47301000000002
940.32001;-299.85999000000004;232.59900000000002
936.9699700000001;-293.42001000000005;224.478
941.2800300000001;-294.85001;226.69600000000003
939.4299900000001;-294.79999000000004;233.09000000000003
936.7100200000001;-290.32001;224.92101000000002
938.0300300000001;-288.10001;226.174
939.52002;-288.51001;234.466
939.3499800000001;-283.78000000000003;228.84500000000003
939.6400100000001;-282.42001000000005;236.04500000000002
939.35999;-277.35999000000004;235.89301000000003
940.5399800000001;-275.48001000000005;239.11301000000003
937.7800300000001;-273.31;237.10800000000003
939.7500000000001;-270.64999;240.80299000000002
939.3700000000001;-264.57001;241.74300000000002
942.19;-262.62;243.71300000000002
938.7100200000001;-260.72;240.79401000000001
939.48999;-257.98999000000003;244.20300000000003
938.7600100000001;-252.94000000000003;239.57800000000003
939.2800300000001;-252.63000000000002;246.28300000000002
939.6699800000001;-246.94000000000003;241.95200000000003
939.60999;-246.85001000000003;247.91000000000003
941.5499900000001;-244.84000000000003;249.806
936.7899800000001;-243.42999000000003;242.92700000000002
940.10999;-240.39000000000001;246.436
939.7600100000001;-240.31000000000003;250.87801000000002
938.2899800000001;-235.63000000000002;248.44000000000003
939.8300200000001;-234.61;252.25600000000003
938.9299900000001;-228.81000000000003;254.53600000000003
940.9299900000001;-227.42999000000003;255.936
938.40002;-224.89999000000003;254.72099000000003
939.95001;-222.53000000000003;257.935
936.7899800000001;-218.24001;254.877
939.5399800000001;-216.86;259.85001
941.9600200000001;-214.60001000000003;261.702
937.77002;-210.92000000000002;260.17001000000005
940.90997;-210.50999000000002;262.28201
938.15997;-205.58;259.935
939.82001;-204.13000000000002;262.57599000000005
938.9600200000001;-201.14999;261.25699000000003
939.6300000000001;-198.87;264.19299
939.7299800000001;-192.78999000000002;265.77200000000005
941.77002;-190.09;267.38699
938.4600200000001;-187.14000000000001;266.41299000000004
940.9799800000001;-186.35001000000003;268.24301
937.40002;-180.91000000000003;267.18399
940.48999;-180.42000000000002;268.255
937.0999800000001;-175.59;267.02899
940.1799900000001;-174.24001;268.45300000000003
936.7899800000001;-167.56;267.19199000000003
939.90002;-169.11;268.25800000000004
937.1699800000001;-162.32001000000002;267.086
939.40002;-162.8;268.57300000000004
937.0600000000001;-158.02;267.233
939.7100200000001;-156.39999;268.29099
939.5999800000001;-150.60001000000003;269.48901
939.65002;-144.44;269.61899
939.2100200000001;-138.37;269.46500000000003
938.23999;-130.22;266.36099
939.5900300000001;-132.89000000000001;269.86301000000003
938.5900300000001;-125.30000000000001;266.57501
939.48999;-126.62;269.14099000000004
939.0000000000001;-118.19000000000001;261.18301
938.9299900000001;-120.94000000000001;266.08301
940.27002;-120.69000000000001;268.92099
938.3400300000001;-114.04;260.54999000000004
939.8900100000001;-115.42000000000002;265.34698000000003
940.6300000000001;-114.18;268.13501
937.65997;-110.72000000000001;260.70499
938.57001;-109.21000000000001;264.65500000000003
940.44;-108.71000000000001;268.61801
937.9299900000001;-103.62;265.27399
939.5399800000001;-102.33000000000001;268.745
938.4299900000001;-95.79;266.41199
939.70001;-96.65;269.04401
938.9600200000001;-91.15;265.73499000000004
939.57001;-90.11000000000001;269.90500000000003
939.8300200000001;-84.49000000000001;265.39899
939.8499800000001;-84.72000000000001;271.923
942.2100200000001;-82.91000000000001;273.61301000000003
938.4699700000001;-78.14;266.04901
938.7800300000001;-78.57000000000001;272.03000000000003
941.40002;-79.07000000000001;273.81201000000004
936.7199700000001;-75.14;266.95801
939.7999900000001;-73.07000000000001;271.45700000000005
939.1799900000001;-71.43;273.30600000000004
939.8300200000001;-67.7;272.08099000000004
939.70001;-66.64;275.94901000000004
939.27002;-61.370000000000005;277.92401
940.3700000000001;-59.050000000000004;279.60001
939.5600000000001;-56.02;278.276
939.73999;-54.32000000000001;282.336
939.5600000000001;-49.00000000000001;282.80899000000005
942.3400300000001;-46.080000000000005;285.33099000000004
938.8499800000001;-42.580000000000005;284.32101
941.2199700000001;-42.660000000000004;285.98199
937.9799800000001;-37.77;284.97198000000003
940.0499900000001;-36.300000000000004;286.50299
939.2500000000001;-30.380000000000003;287.702
937.5000000000001;-26.71;284.77899
939.15997;-24.720000000000002;288.814
939.5100100000001;-19.12;289.384
942.3100000000001;-19.23;291.97101000000004
939.0300300000001;-12.580000000000002;290.02301
941.52002;-11.620000000000001;291.88501
938.3700000000001;-6.73;290.71500000000003
941.65002;-6.290000000000001;291.85199
938.2600100000001;-0.66;290.59201
940.5499900000001;-0.31;292.46500000000003
937.85999;4.880000000000001;290.94501
940.98999;5.510000000000001;292.44501
937.5100100000001;11.350000000000001;290.38199000000003
940.0900300000001;11.770000000000001;292.92001000000005
937.40002;15.15;291.14099000000004
939.3800000000001;17.43;293.27399
937.77002;25.950000000000003;290.63101
939.65002;23.580000000000002;293.65799000000004
936.98999;28.740000000000002;289.99301
939.8300200000001;29.35;294.50800000000004
938.2500000000001;35.720000000000006;291.21701
939.5900300000001;35.330000000000005;294.48499000000004
938.7500000000001;41.980000000000004;290.30899000000005
939.32001;41.550000000000004;293.94501
938.9600200000001;46.790000000000006;290.75299
939.7100200000001;47.410000000000004;294.56799
938.0399800000001;52.040000000000006;291.004
939.4799800000001;53.120000000000005;295.26599000000004
941.8300200000001;54.50000000000001;297.634
938.3300200000001;59.09;295.74100000000004
941.20001;60.02;298.242
937.8900100000001;64.87;296.625
940.1699800000001;65.60000000000001;298.50601
938.2199700000001;71.98;296.23599
940.4199800000001;71.5;299.00201000000004
937.6300000000001;76.36;297.25500000000005
940.0100100000001;77.48;299.41400000000004
939.20001;82.81;295.87
939.69;83.54;299.37799
938.69;88.52000000000001;296.87701000000004
939.7500000000001;89.62;300.14099000000004
939.5499900000001;95.82000000000001;301.064
939.5499900000001;101.14000000000001;302.25601
939.9199800000001;107.66000000000001;303.00699000000003
939.1799900000001;113.10000000000001;302.47198000000003
942.2299800000001;122.02000000000001;297.21799000000004
939.65002;119.46000000000001;301.70901000000003
936.8800000000001;120.75000000000001;303.28000000000003
941.2100200000001;127.92000000000002;296.44901000000004
939.44;125.14000000000001;301.20599000000004
941.4299900000001;133.21001;296.51599000000004
939.2299800000001;131.28999000000002;298.51401000000004
939.85999;137.44;295.30499000000003
937.0800200000001;135.13000000000002;297.72400000000005
939.8499800000001;145.78999000000002;290.85999000000004
939.35999;143.42999;293.53101000000004
940.0100100000001;149.24001;288.76401000000004
937.4199800000001;146.70000000000002;293.05701000000005
945.77002;-768.1799900000001;186.25900000000001
945.8400300000001;-762.41998;186.11800000000002
945.5900300000001;-756.3400300000001;186.28799
948.1200000000001;-747.9799800000001;183.245
945.9500100000001;-750.6200000000001;184.763
945.77002;-744.37;182.007
944.2100200000001;-747.4600200000001;183.36700000000002
945.65997;-738.5900300000001;179.162
945.82001;-731.9799800000001;176.228
945.48999;-735.0999800000001;177.649
945.6400100000001;-726.40002;173.77200000000002
945.5399800000001;-719.32001;170.375
945.6799900000001;-722.3400300000001;171.90601
945.52002;-714.3800000000001;169.586
945.4299900000001;-709.16998;169.84500000000003
946.4699700000001;-706.69;172.47501000000003
945.7800300000001;-702.69;175.33900000000003
945.4600200000001;-696.4299900000001;175.35001000000003
945.0000000000001;-691.85999;175.63499000000002
946.7100200000001;-689.3499800000001;178.67200000000003
945.2000100000001;-686.15002;182.149
945.85999;-683.23999;185.28799
944.9600200000001;-680.3100000000001;187.8
945.82001;-677.2299800000001;191.25900000000001
944.8300200000001;-674.7100200000001;193.82001000000002
945.5900300000001;-672.19;197.33900000000003
945.6200000000001;-666.78003;196.45200000000003
945.8100000000001;-660.78998;196.41600000000003
945.4600200000001;-654.48999;196.32600000000002
945.9500100000001;-648.6400100000001;196.431
945.6200000000001;-642.53998;196.435
945.5499900000001;-636.6799900000001;196.30499
945.0499900000001;-631.5800200000001;198.90401000000003
946.0600000000001;-629.07001;202.91701
945.90997;-624.44;203.019
944.82001;-620.23999;206.116
945.7999900000001;-617.5800200000001;210.10899
947.73999;-615.78003;214.30701000000002
944.1400100000001;-615.37;212.36301000000003
945.8499800000001;-612.48999;214.20200000000003
945.3700000000001;-607.2199700000001;216.39799000000002
946.9600200000001;-604.88;220.36301000000003
943.1300000000001;-603.2999900000001;218.72301000000002
945.2199700000001;-601.16998;223.26100000000002
946.4199800000001;-599.53998;226.98100000000002
943.1699800000001;-595.38;224.705
944.94;-594.5900300000001;228.681
947.0900300000001;-592.53998;231.62900000000002
943.73999;-590.65002;230.61
945.7600100000001;-588.3100000000001;233.82800000000003
945.9299900000001;-582.7600100000001;235.17000000000002
947.27002;-580.5999800000001;237.69701
945.0100100000001;-578.20001;236.63100000000003
945.8400300000001;-575.41998;237.99300000000002
945.5900300000001;-570.2299800000001;240.51199000000003
945.32001;-564.53998;242.53600000000003
948.15997;-562.73999;243.75301000000002
944.4600200000001;-559.45001;242.23399
946.0800200000001;-558.16998;244.55
944.94;-552.0100100000001;242.47600000000003
946.7899800000001;-553.15002;244.23900000000003
946.1400100000001;-546.40002;240.73300000000003
947.8700000000001;-545.25;243.76700000000002
943.9199800000001;-538.40997;236.502
946.15002;-540.91998;238.961
948.32001;-543.32001;244.20300000000003
944.9299900000001;-534.0999800000001;236.04100000000003
947.40997;-535.8100000000001;238.13499000000002
944.27002;-526.9799800000001;230.55
945.7899800000001;-528.95001;234.151
943.9699700000001;-522.38;229.40601
946.35999;-523.08002;232.36200000000002
946.1400100000001;-514.4299900000001;225.25500000000002
945.5900300000001;-516.35999;228.70799000000002
947.85999;-518.57001;231.425
946.2500000000001;-511.85999000000004;224.36099000000002
945.2899800000001;-510.82999000000007;228.48801000000003
946.19;-504.01001;222.24800000000002
945.7000100000001;-504.29001000000005;229.22301000000002
945.0900300000001;-497.64001;221.901
945.4299900000001;-498.57001;229.28000000000003
945.40997;-492.67999000000003;222.51500000000001
945.94;-492.48001000000005;229.26199000000003
944.9699700000001;-486.19000000000005;223.603
945.60999;-486.38000000000005;229.17999000000003
944.0999800000001;-480.95999000000006;224.81799
945.4600200000001;-480.70999000000006;229.53300000000002
948.23999;-478.44000000000005;231.47701
944.7500000000001;-475.92001000000005;230.30800000000002
946.69;-473.91;232.13600000000002
943.65997;-468.67001000000005;231.23199000000002
945.7600100000001;-468.39999000000006;232.64999000000003
944.0800200000001;-463.41;230.25500000000002
945.7299800000001;-462.57999000000007;233.681
942.9699700000001;-459.51999000000006;230.763
945.2100200000001;-456.76999000000006;234.01199000000003
945.40997;-450.34000000000003;233.556
943.9500100000001;-444.37000000000006;230.442
945.6699800000001;-444.70999000000006;232.93201000000002
944.5000000000001;-439.62000000000006;230.621
946.15997;-438.39001;232.69701
944.1699800000001;-432.07999;229.692
947.15002;-433.13000000000005;231.705
944.57001;-426.70999000000006;230.12801000000002
947.4699700000001;-426.53000000000003;231.56599000000003
944.35999;-420.70001;230.383
947.1699800000001;-420.42001000000005;231.89301000000003
943.5499900000001;-414.92001000000005;230.23199000000002
946.90997;-414.38000000000005;233.01801000000003
943.5900300000001;-408.44000000000005;230.12199
946.9299900000001;-408.26001;232.377
944.5499900000001;-402.59000000000003;230.53101
947.2299800000001;-403.23001000000005;231.63699000000003
945.0999800000001;-396.95001;230.31599000000003
947.2000100000001;-396.63000000000005;232.84599000000003
944.2999900000001;-390.57999;230.91299
946.5399800000001;-390.50000000000006;232.74500000000003
943.60999;-385.39999000000006;230.52901000000003
946.15002;-384.63000000000005;233.00301000000002
943.3700000000001;-379.64999000000006;231.20100000000002
945.90002;-378.39001;233.50301000000002
944.9699700000001;-373.89001;229.80099
945.6300000000001;-372.60999000000004;234.14101000000002
946.23999;-365.62;230.95300000000003
945.6400100000001;-366.62;233.74699
945.48999;-360.44000000000005;230.21400000000003
946.0499900000001;-360.76999;232.39600000000002
944.8499800000001;-356.56;228.573
946.07001;-354.35001000000005;232.77800000000002
944.3800000000001;-348.89001;227.38499000000002
945.4199800000001;-348.60999000000004;232.39101000000002
946.1400100000001;-342.64999;228.25600000000003
945.6200000000001;-342.35001000000005;233.47600000000003
946.8100000000001;-337.79999000000004;229.96500000000003
946.0800200000001;-336.66;233.31400000000002
943.8800000000001;-331.35001000000005;230.60201
945.3400300000001;-330.73999000000003;233.99001
942.60999;-327.35999000000004;229.95100000000002
945.8300200000001;-324.66;235.10001000000003
948.40002;-324.04999000000004;237.28600000000003
945.4500100000001;-318.44;234.52100000000002
948.2100200000001;-318.62;237.78799
945.73999;-312.82999;234.657
948.2800300000001;-311.85999000000004;238.23700000000002
942.7199700000001;-304.17001000000005;231.16000000000003
945.5000000000001;-306.31;235.54100000000003
944.07001;-298.16;229.205
945.44;-300.95001;234.99001
944.6400100000001;-297.07001;229.18401000000003
945.23999;-294.69;236.23000000000002
947.5100100000001;-292.89999;237.62399000000002
947.6200000000001;-288.84000000000003;229.621
944.0800200000001;-288.81;236.60800000000003
946.5300300000001;-288.29001;237.86099000000002
945.0900300000001;-284.09000000000003;230.43300000000002
943.15997;-283.13;237.22701
945.9600200000001;-282.54001;238.19901000000002
943.9699700000001;-278.89999;237.25000000000003
945.1699800000001;-276.64001;240.07001000000002
946.8300200000001;-273.63;244.48399000000003
944.60999;-270.84000000000003;242.58900000000003
947.2600100000001;-270.62;243.746
943.48999;-265.73999000000003;241.63100000000003
945.5800200000001;-264.16;244.645
943.19;-258.06;242.23300000000003
945.8700000000001;-258.37;245.31599000000003
943.0100100000001;-254.24001;241.45000000000002
945.6699800000001;-253.07001000000002;247.56500000000003
947.02002;-250.25999000000002;249.67900000000003
942.8700000000001;-247.71001;243.16901000000001
943.5100100000001;-246.42000000000002;246.55099
945.6799900000001;-246.20000000000002;250.52400000000003
946.7299800000001;-241.82001000000002;247.18300000000002
945.44;-240.28000000000003;252.11
945.3400300000001;-235.92999000000003;248.64999000000003
945.8900100000001;-234.75000000000003;253.77800000000002
948.0499900000001;-232.12000000000003;255.716
944.27002;-229.99001;254.74400000000003
946.2899800000001;-227.85001000000003;256.09900000000005
943.15997;-225.36;254.47000000000003
945.40997;-222.44000000000003;259.418
947.3300200000001;-220.13000000000002;261.51001
945.3499800000001;-216.78999000000002;259.64301
946.1400100000001;-215.81000000000003;262.49301
945.07001;-212.60001000000003;260.45300000000003
945.57001;-210.75000000000003;263.88699
942.65002;-205.60001000000003;261.11801
945.5900300000001;-204.64000000000001;265.24399
945.5999800000001;-198.78999000000002;265.95901000000003
947.8400300000001;-197.56;267.46201
945.0900300000001;-192.87;265.52701
946.15002;-191.96001;267.95401000000004
943.98999;-188.36;266.55499000000003
945.5300300000001;-186.64999;269.298
945.7199700000001;-180.94000000000003;270.95801
944.7000100000001;-174.71001;272.14301
947.10999;-173.72000000000003;274.18399
944.73999;-168.14999;271.05099
947.2899800000001;-168.70000000000002;274.92499000000004
944.5499900000001;-162.53;271.56100000000004
947.9199800000001;-162.67999;273.96899
945.7999900000001;-156.52;271.68600000000004
948.40997;-158.16000000000003;273.47198000000003
945.5300300000001;-150.69000000000003;270.91101000000003
945.4500100000001;-144.45000000000002;270.14899
945.4600200000001;-138.55;271.05801
945.6300000000001;-132.20000000000002;270.98901
945.82001;-125.4;265.22198000000003
946.0499900000001;-126.12;270.08401000000003
946.2500000000001;-120.87;264.39001
945.6200000000001;-120.88000000000001;269.41501
944.7600100000001;-113.79;264.08701
945.6300000000001;-114.59;270.24600000000004
944.4199800000001;-108.91000000000001;265.30801
945.6300000000001;-108.38000000000001;270.49600000000004
944.4600200000001;-103.22000000000001;266.617
945.60999;-102.41000000000001;270.73199
942.6799900000001;-99.54;267.173
945.6400100000001;-96.57000000000001;271.483
948.15997;-94.75000000000001;273.84201
942.85999;-89.22000000000001;266.63599000000005
945.0100100000001;-90.62;272.08701
948.0900300000001;-90.59;273.504
943.3499800000001;-83.77000000000001;266.61499000000003
945.2199700000001;-84.72000000000001;268.44299
945.90002;-84.46000000000001;273.98499000000004
943.0300300000001;-81.21000000000001;266.84201
946.5399800000001;-79.62;268.547
945.5300300000001;-78.72000000000001;274.96701
944.77002;-72.57000000000001;272.255
945.8400300000001;-72.55000000000001;275.44800000000004
943.32001;-68.78;272.05899
945.6699800000001;-66.62;276.89899
947.5800200000001;-63.84;280.07999
944.2000100000001;-62.11000000000001;278.41
945.5300300000001;-59.99;281.13300000000004
945.5100100000001;-54.52;283.26599000000004
944.8700000000001;-49.89;284.92401
946.2500000000001;-47.830000000000005;285.89099000000004
944.3499800000001;-43.50000000000001;284.69699
945.5800200000001;-42.480000000000004;287.44
943.8900100000001;-39.330000000000005;285.09601000000004
945.94;-36.57;288.673
945.15002;-31.000000000000004;289.673
947.7999900000001;-29.130000000000003;291.69101
944.65002;-24.96;290.319
947.4199800000001;-23.98;291.97299000000004
944.48999;-20.240000000000002;291.01501
945.6799900000001;-18.44;292.742
943.77002;-12.770000000000001;289.91400000000004
945.65997;-12.370000000000001;294.14801
943.4600200000001;-8.280000000000001;290.216
945.8499800000001;-6.680000000000001;293.19299
943.8499800000001;-2.8000000000000003;290.36401
945.4699700000001;-0.42000000000000004;294.09601000000004
945.2500000000001;5.670000000000001;294.737
943.0499900000001;12.250000000000002;290.802
945.5300300000001;11.530000000000001;295.26599000000004
948.2899800000001;14.110000000000001;297.315
944.9699700000001;16.970000000000002;295.884
947.7299800000001;17.990000000000002;298.07800000000003
943.90002;23.17;296.42899
947.1200000000001;23.23;298.76099000000005
943.3300200000001;29.230000000000004;296.89700000000005
946.10999;29.46;299.25601
943.7999900000001;34.6;297.23199
945.8300200000001;35.6;298.54999000000004
944.2299800000001;41.24;296.24701000000005
946.6200000000001;41.7;298.35199
944.8400300000001;47.660000000000004;297.26300000000003
946.2600100000001;47.39;297.439
946.65997;53.49;296.56100000000004
945.85999;53.68000000000001;298.58801
945.2199700000001;58.220000000000006;297.03101000000004
945.3400300000001;59.260000000000005;299.54001000000005
942.6400100000001;63.24;296.66599
945.7600100000001;65.75;300.36899
943.5800200000001;69.85000000000001;297.07300000000004
945.3800000000001;71.21000000000001;300.98599
942.6200000000001;78.54;297.15302
946.2100200000001;77.44000000000001;299.97101000000004
945.2600100000001;83.39;300.69
945.7500000000001;89.22000000000001;300.79099
945.9500100000001;95.27000000000001;300.629
945.5100100000001;101.78000000000002;302.353
947.40997;101.02000000000001;303.30301000000003
945.5000000000001;108.08000000000001;302.16599
942.9199800000001;109.80000000000001;303.38101
948.0600000000001;115.53000000000002;295.73801000000003
945.65997;113.32000000000001;301.62
944.02002;118.87;296.918
945.6799900000001;119.62;299.88800000000003
947.15002;125.97000000000001;296.08099000000004
944.5499900000001;124.97000000000001;298.495
947.40997;131.99001;289.91400000000004
945.3800000000001;131.78;295.35599
942.8800000000001;128.78;297.75101
947.2299800000001;138.97;289.92001000000005
945.44;137.34;293.36600000000004
946.19;143.8;288.34900000000005
943.6799900000001;142.32001000000002;292.36499000000003
947.90997;150.45000000000002;283.87201000000005
945.0999800000001;148.61;287.07300000000004
951.5600000000001;-768.3900100000001;186.27100000000002
951.6699800000001;-762.57001;186.16299
951.6400100000001;-756.2299800000001;186.252
951.9199800000001;-747.87;183.07401000000002
951.35999;-750.85999;184.22701
951.5999800000001;-744.5800200000001;181.69701
951.7199700000001;-738.6300000000001;179.08
951.69;-731.78003;176.53300000000002
951.8499800000001;-734.7500000000001;177.64101000000002
951.5100100000001;-726.60999;174.39999
951.35999;-718.69;170.84900000000002
951.8499800000001;-721.5499900000001;172.108
951.48999;-714.4600200000001;170.46300000000002
951.65997;-710.40002;170.60201
951.90997;-707.66998;172.85500000000002
951.19;-702.53003;175.23000000000002
951.6699800000001;-696.78998;174.80499
951.3800000000001;-692.9799800000001;176.62601
951.5600000000001;-690.1300000000001;179.58800000000002
954.44;-687.62;183.745
949.8300200000001;-686.90002;181.55499
951.2999900000001;-684.27002;186.26601000000002
953.7600100000001;-681.91998;189.45000000000002
949.8900100000001;-681.2100200000001;188.907
951.4699700000001;-678.69;191.97701
952.7199700000001;-676.16998;196.28000000000003
949.07001;-675.2600100000001;195.09801000000002
951.5000000000001;-672.27002;197.24001
951.7199700000001;-666.5600000000001;196.604
951.5900300000001;-660.5800200000001;196.44400000000002
951.4600200000001;-654.4799800000001;196.586
951.5900300000001;-648.48999;196.685
951.60999;-642.78998;196.60899
